# .PCD v0.7 - Point Cloud Data file format
VERSION 0.7
FIELDS x y z
SIZE 4 4 4
TYPE F F F
COUNT 1 1 1
WIDTH 401
HEIGHT 1
VIEWPOINT 0 0 0 1 0 0 0
POINTS 401
DATA ascii
-0.012648 -0.002298 -0.0079349997
-0.0065919999 -0.0088170003 -0.012474
-0.00214 -0.021729 -0.010277
-0.0014759999 -0.021955 -0.011205
-0.0069670002 -0.019090001 -0.0060439999
-0.0025589999 -0.021646 -0.010453
-0.010777 0.0036269999 -0.013925
-0.007559 0.002168 -0.016693
-0.0067989998 0.0046120002 -0.018485
-0.013919 -0.0021250001 -0.0040790001
-0.003612 -0.01812 -0.0080819996
-0.0036220001 0.0024939999 -0.018745
-0.003675 -0.0083330004 -0.013603
-0.0071680001 0.011195 -0.020287
0.001795 -0.02196 -0.010579
-0.013527 -0.01225 0.0052680001
-0.00093799998 -0.015303 -0.01007
-0.013381 -0.011544 0.0031010001
-0.011935 0.011467 -0.0096610002
-0.011638 0.014946 -0.012821
-0.013353 -0.00073299999 0.0020250001
-0.0013 0.008928 -0.021647001
-0.012492 0.0064670001 -0.002448
-0.012213 -0.0079730004 0.0079509998
-0.010793 0.014021 -0.010868
-0.012588 0.0064269998 -0.0011080001
-0.01167 -0.0091859996 0.010401
0.0017040001 0.004133 -0.019726999
0.002594 -0.017096 -0.0093090003
0.0047880001 -0.019277999 -0.0073190001
-0.011562 -0.0085340003 0.010959
0.001379 0.010388 -0.021825001
-0.010018 0.019401001 -0.010598
0.0040130001 -0.010841 -0.011713
0.005529 0.00052499998 -0.016235
-0.0081160003 0.0090579996 0.0036009999
0.006298 -0.0061750002 -0.012888
-0.0087160002 -0.0056730001 0.012282
-0.0059210001 0.020415001 -0.0053829998
0.005926 0.0091810003 -0.018386999
0.0081759999 -0.0042559998 -0.012261
-0.0059090001 0.015962999 -0.00138
0.0080390004 0.003548 -0.015931999
0.0094339997 -0.0066430001 -0.010474
-0.0060490002 0.010461 0.0039029999
-0.006418 -0.0059170001 0.01503
-0.003583 0.017294001 -0.001018
-0.0038620001 0.011859 0.0038040001
-0.004251 0.022182001 -0.0064960001
-0.0030429999 -0.0040560002 0.015563
-0.0024359999 -0.001059 0.014302
0.012488 -0.014804 -0.000734
0.012743 -0.01502 -0.00098100002
-0.001168 0.0059799999 0.0082839997
0.012369 -0.0117 -0.001844
-0.001879 -0.0021009999 0.01432
-0.003455 -0.0053460002 0.016070001
-0.000218 -0.0041069998 0.0154
-0.002324 -0.0054720002 0.016085001
0.001327 0.017153 -0.000825
0.011814 0.0025849999 -0.007648
-0.00047299999 -0.000337 0.012559
0.0068709999 0.020388 -0.010312
-0.003238 -0.001356 0.018488999
0.010697 0.0090199998 -0.010169
0.002349 0.016495001 -0.00111
0.010915 0.010712 -0.0099139996
0.0022849999 -0.005225 0.015946001
0.0020930001 -0.001609 0.014784
0.00121 -0.00069399999 0.014733
0.0052089998 -0.0038650001 0.013545
0.003389 -0.002601 0.014864
0.0060169999 0.002817 0.0083790002
-0.003061 0.0033239999 0.020400999
0.013574 -0.011735 0.0044820001
-0.000436 0.002292 0.017785
-0.003021 0.0032860001 0.021992
0.002878 -0.0034439999 0.01527
0.010438 0.007921 -0.001678
0.0083379997 0.00599 0.0047470001
-0.003427 0.004307 0.022190001
0.0097909998 0.001344 0.0057160002
0.013161 -0.010123 0.0068219998
0.01098 0.00082700001 0.0051139998
-0.001687 0.0092369998 0.019005001
-0.00014400001 0.0058499998 0.019289
-0.002418 0.0091669997 0.020156
-0.003728 0.011583 0.020977
0.001273 0.0029529999 0.018556001
-0.000332 0.006238 0.019754
0.012357 -0.0085439999 0.0097430004
0.0093750004 -0.0066109998 0.012943
-6.2999999e-05 0.0087200003 0.019577
0.00205 0.0022090001 0.019688001
-0.00023200001 0.021685001 0.013219
0.001156 0.0093999999 0.019721
0.0028210001 0.003816 0.020919001
0.002544 0.002779 0.021446001
0.00191 0.0086559998 0.020850001
0.0018420001 0.021327 0.014125
0.0027000001 0.0097399997 0.021728
0.0022839999 0.011146 0.021131
-0.006879 -0.004307 0.012963
0.0094520003 0.013961 -0.011416
-0.0097700004 0.012579 -0.011361
0.0058289999 0.010497 -0.016918
-0.0090910001 0.013557 -0.010524
-0.00073999999 0.017627999 -0.0075309998
0.0051679998 0.017419999 -0.0039220001
-0.009943 0.0073520001 -0.013661
-0.0049589998 0.017348001 -0.0044649998
-0.0060450002 0.0054939999 -0.017534001
-0.01157 0.0098860003 -0.011096
-0.003609 0.016589999 -0.0085519999
-0.0037229999 0.0059810001 -0.018895
-0.001412 0.012463 -0.015736001
0.0028860001 0.016398 -0.011232
-0.010078 -0.0067349998 -0.010631
-0.0091730002 -0.018266 -0.0047030002
-0.011264 -0.014079 -0.0044220001
-0.011949 -0.015773 -0.000932
-0.012576 -0.015985999 -0.000741
-0.011338 -0.0036160001 -0.010506
-0.013018 -0.0058639999 -0.005992
-0.0085000005 -0.018169001 -0.0047089998
-0.010151 -0.016982 -0.003388
-0.0095629999 -0.0074629998 -0.01021
-0.0068100002 -0.018541999 -0.0058590001
-0.012937 -0.013777 0.00093699998
-0.0048540002 -0.015961001 -0.0091040004
-0.0092970002 -0.002081 -0.013413
-0.0036599999 -0.020741001 -0.0089140004
-0.0094140004 -0.001677 -0.01393
-0.0068310001 -0.0027040001 -0.015455
-0.013429 -0.003546 -0.0031590001
-0.005202 -0.019427 -0.0070110001
-0.0090899998 0.0055559999 -0.017059
-0.011822 0.003454 -0.012656
-0.0066579999 -0.0099839997 -0.011205
-0.0038040001 -0.020633001 -0.0082040001
-0.0043410002 -0.019714 -0.0070710001
-0.001671 -0.020842001 -0.010399
-0.012578 0.0054250001 -0.010379
-0.0057470002 -0.0049950001 -0.014474
-0.013714 -0.014102 0.002414
-0.01354 -0.013681 0.0032230001
-0.013115 0.002817 -0.0092810001
-0.001437 -0.016372001 -0.0098740002
-0.002229 -0.019399 -0.0094079999
0.00083500001 -0.022500001 -0.011364
-0.010975 0.012321 -0.016018
-0.002654 -0.0071490002 -0.014939
-0.00086299999 -0.022402 -0.011133
0.00052499998 -0.022314999 -0.011732
-0.0094010001 0.011774 -0.018343
-0.0028230001 -0.017139999 -0.0095009999
-0.0025520001 -0.018635999 -0.009699
0.000455 -0.016274 -0.010062
0.000182 -0.019249 -0.010338
-0.012912 0.0083419997 -0.0097869998
-0.00569 0.0020020001 -0.017731
-0.002878 -0.015327 -0.0097380001
-0.014 -0.00028000001 -0.002257
-0.01342 -0.0024550001 0.00031999999
-0.013223 0.003786 -0.0040830001
-0.0085500004 0.013872 -0.019504
-0.010453 0.015749 -0.016561
-0.0040620002 0.001758 -0.018674999
-0.013033 -0.010821 0.0079070004
-0.0044550002 0.0099299997 -0.021397
-0.011404 0.013135 -0.011515
-0.00134 0.001167 -0.018890001
-0.010845 0.017744999 -0.013012
0.00090899999 -0.016303999 -0.0095159998
-0.013041 -0.0094889998 0.0058869999
-0.001022 -0.0047030002 -0.015924999
-0.013668 -0.011439 0.0067289998
0.001255 -0.0054759998 -0.015799999
-0.012721 0.010265 -0.0072340001
-0.0047590001 0.012698 -0.021909
0.0020630001 -0.016959 -0.0091439998
-0.000451 0.012613 -0.022074001
0.002361 -0.021708 -0.010626
0.003796 -0.020238999 -0.0079669999
-0.011344 0.014229 -0.0095260004
-0.00145 0.012354 -0.02252
0.001524 -0.0059190001 -0.015121
-0.01242 1.8999999e-05 0.003
0.004919 -0.019138001 -0.006854
-0.011756 0.012398 -0.0054449998
-0.012728 -0.0098820003 0.0091949999
-0.010592 0.014968 -0.0069889999
-0.010366 0.0040890002 0.0042619999
-0.011531 0.0083299996 -0.001375
0.002045 0.012862 -0.022116
-0.0097049996 0.015226 -0.0050530001
-0.01171 -0.00052300002 0.0058789998
0.0014440001 0.0049530002 -0.019719999
-0.009811 0.014379 -0.003209
0.0037690001 -0.0052999998 -0.015194
0.0040020002 -0.002111 -0.016062999
-0.011128 -0.006939 0.0097359996
0.0045090001 0.0051440001 -0.019029999
-0.010424 -0.007948 0.012329
-0.009912 0.011687 -0.001609
-0.00136 0.017113 -0.014316
0.0037179999 0.0065700002 -0.019286999
-0.010471 0.0077379998 0.001923
0.0076700002 -0.017773001 -0.0057979999
0.006757 -0.011613 -0.010289
-0.0093149999 0.018540001 -0.0072949999
-0.0080460003 0.015709 -0.003053
0.006635 -0.001788 -0.015198
-0.0086970003 -0.0068839998 0.013729
-0.0073859999 0.021152999 -0.0080390004
0.006697 -0.018797999 -0.006577
-0.0080190003 -0.0070759999 0.0139
-0.0082860002 0.012378 -1.5e-05
-0.008653 0.0058209999 0.0050710002
0.0054779998 0.014098 -0.020297
0.005016 0.01119 -0.02039
-0.0091589997 0.00066100003 0.0085589997
0.0093409996 -0.017662 -0.0049370001
0.007458 0.012598 -0.018231999
-0.0054680002 0.011617 0.002846
0.007522 0.005233 -0.016085001
-0.0066689998 0.015461 -0.00085100002
-0.00398 -0.00089299999 0.012172
-0.005477 0.0036859999 0.0092270002
0.010249 -0.016550001 -0.0037489999
0.011532 -0.016253 -0.0028059999
0.0099419998 -0.0047869999 -0.0098409997
-0.0044800001 0.0062640002 0.0073549999
-0.0074209999 -0.0029500001 0.012284
0.0084060002 0.017802 -0.014665
0.010874 0.001795 -0.01144
-0.003175 -0.003423 0.014301
0.011815 -0.004437 -0.0077160001
0.011552 -0.015548 -0.0022509999
-0.0051520001 -0.0058829999 0.015322
0.0096589997 0.0075320001 -0.01457
0.0079709999 0.016116999 -0.017148999
-0.00081200001 0.015545 0.001071
0.0091199996 0.011182 -0.014518
-0.001085 0.022500001 -0.0060899998
0.010231 0.010592 -0.013027
-0.002172 0.0077499999 0.0074370001
-0.0040529999 -0.0019759999 0.013491
-0.003186 -0.001807 0.014703
-0.0037529999 -0.0037169999 0.015115
-0.0032820001 -0.0034340001 0.015891001
-0.001463 0.012713 0.0029879999
-0.0025249999 -0.0017 0.014941
0.010361 0.0029 -0.011747
-0.0028860001 -9.9999997e-05 0.019896001
-0.0010629999 -0.00041800001 0.014069
-0.0033839999 -0.00082100002 0.018138999
0.013776 -0.013316 0.001738
0.012011 -0.0066840001 -0.0052120001
0.0080639999 0.018905999 -0.012791
-0.001512 0.016346 -0.00023999999
-0.0018110001 -0.000466 0.013124
0.001794 0.021309 -0.0053790002
-0.001553 -0.00096400001 0.014523
0.013296 -0.013422 0.001709
0.001238 0.0090199998 0.0064229998
0.00171 0.012415 0.0029209999
0.001893 -0.00064699998 0.013174
0.012424 0.00099800003 -0.007274
-0.0024230001 0.00040300001 0.017814999
0.003883 0.021919999 -0.0075449999
-0.001606 0.001738 0.017690999
-7.1000002e-05 -0.0052780001 0.016147999
6.0999999e-05 -0.0047109998 0.016350999
0.0028550001 0.0067380001 0.0071450002
-0.0025780001 0.0011540001 0.017994
-0.000243 -0.00086299999 0.013953
0.0021170001 -0.0034139999 0.014619
0.003786 0.015436 -6.5e-05
0.000443 -0.00051599997 0.013571
0.001113 -0.001559 0.014076
0.0020290001 0.001524 0.011025
0.006794 0.018664001 -0.006782
0.010616 0.010287 -0.0072360002
0.01274 -0.0024929999 -0.0032589999
0.012997 0.000505 -0.0029219999
0.0021250001 -0.00092700002 0.014339
0.0082590003 0.017547 -0.0085749999
0.0052789999 0.01126 0.0022179999
0.0090760002 0.016479 -0.010046
-0.00084599998 0.001358 0.017409001
0.0038330001 -0.001757 0.013363
-0.002267 0.0039189998 0.019539
0.0059469999 0.014472 -0.00072900002
0.011423 0.0087139998 -0.005907
-0.001677 0.003244 0.019392001
-0.00049200002 0.0029740001 0.018789999
0.0037720001 -0.0039530001 0.015136
0.00088000001 0.001645 0.017162999
0.010405 0.0097150002 -0.0024530001
0.004555 0.006943 0.0069019999
0.012282 0.002482 -0.0025800001
0.005014 -0.0055450001 0.015107
0.0097669996 0.012016 -0.005746
0.007739 0.011722 -0.00074300001
0.003305 -0.0033199999 0.015406
-0.0019670001 0.0058709998 0.019718001
-0.002599 0.0045739999 0.02059
-0.0033750001 0.00097400002 0.020571999
0.014 -0.011733 0.0042880001
0.0080310004 0.013041 -0.001727
-0.0029509999 0.0085429996 0.021264
-0.000749 0.004094 0.018885
0.0021790001 0.001367 0.01808
-0.0030139999 0.0069129998 0.020672999
0.000849 0.001524 0.017777
0.003091 -0.00091200002 0.018239001
0.0080540003 0.006608 0.0037159999
0.011699 -0.001087 0.003941
-0.003461 0.0062699998 0.02252
0.001015 0.003182 0.01918
0.013612 -0.010138 0.0067520002
0.0067670001 -0.0056480002 0.014651
-0.001894 0.0061519998 0.020176001
-0.00315 0.005783 0.022508999
0.00187 0.001208 0.018409001
0.0074399998 -0.001697 0.011265
-0.0026430001 0.0090610003 0.019687001
0.012376 0.002081 9.7999997e-05
-0.003491 0.0080319997 0.021515001
0.011974 -0.0085380003 0.0094349999
0.002625 -0.001069 0.018211
0.0079960003 -0.0061300001 0.013295
-0.003485 0.0082599996 0.022284999
0.01019 -0.0071530002 0.011572
-0.002869 0.021593999 0.013315
-0.003211 0.0087879999 0.022226
-0.000459 0.0087040002 0.019073
0.00017299999 0.004435 0.019478001
-0.003878 0.015745999 0.018981
-0.0036259999 0.017657001 0.01811
-0.0034360001 0.012169 0.020786
0.0029500001 0.00081599999 0.020168999
0.002662 0.00067899999 0.020178
-0.00134 0.0088440003 0.019648001
0.0011080001 0.0045159999 0.019253001
0.00085100002 0.0090509998 0.019169999
0.0020639999 0.0045670001 0.019956
0.001838 0.004588 0.020382
-0.001784 0.02091 0.013696
0.0013220001 0.006788 0.020228
0.00069199997 0.021793 0.012908
0.001853 0.0083919996 0.02
0.0028520001 0.004222 0.021942001
0.002506 0.005192 0.022221001
0.0025500001 0.0087310001 0.020695001
0.0028589999 0.0080570001 0.022001
0.0023719999 0.0078119999 0.022151001
0.00129 0.020826001 0.014613
0.002388 0.020552 0.016068
0.001907 0.020253999 0.016687
0.002451 0.016616 0.01849
0.013156 -0.0095650004 0.00015199999
0.0052410001 0.0064409999 -0.018221
-0.0040130001 0.019941 0.016767999
-0.003726 0.020461001 0.016597999
-0.0039169998 0.020632001 0.01542
-0.0096399998 -0.007793 0.012729
-0.011498 -0.003364 -0.0097780004
0.008413 0.01644 -0.0091070002
0.0080300001 0.010251 -0.016333999
-0.0012919999 0.021676 0.012651
0.0073239999 0.015526 -0.011744
0.007028 0.018246001 -0.0077379998
0.0013530001 0.007555 -0.019385001
0.0050039999 0.018781001 -0.0055749998
0.0036460001 0.018173 -0.00501
0.0021780001 0.017836999 -0.0031379999
0.0046990002 0.0079060001 -0.018321
-0.00868 0.015601 -0.0057560001
-0.0036609999 0.017525 -0.0030950001
0.0057239998 0.013856 -0.014605
0.0071729999 0.017293001 -0.008351
0.0031709999 0.014573 -0.014262
-3.5000001e-05 0.015619 -0.01206
0.00046899999 0.018200001 -0.0048540002
0.0067750001 0.016605999 -0.0092719998
-0.001526 0.0096420003 -0.017916
-0.005142 0.0086979996 -0.016743001
-0.0080840001 0.014112 -0.0097700004
-0.0052979998 0.016967 -0.006238
0.0029249999 0.012802 -0.016140999
-0.010575 0.010587 -0.011748
-0.0086300001 0.011709 -0.012177
0.0081049995 0.013778 -0.013346
-0.003088 0.020693 0.014711
-0.0070750001 -0.0065270001 0.014383
-0.001534 -0.017298 -0.0095790001
-0.0025859999 0.001871 0.019605
0.003511 -0.0051230001 0.015892001
0.002751 0.00036500001 0.017958
